# .PCD v0.7 - Point Cloud Data file format
VERSION 0.7
FIELDS x y z rgb
SIZE 4 4 4 4
TYPE F F F U
COUNT 1 1 1 1
WIDTH 1167
HEIGHT 1
VIEWPOINT 0 0 0 1 0 0 0
POINTS 1167
DATA ascii
0.46999985 0.0099999998 -0.0099999998 4294967295
0.46999985 0.02 -0.0099999998 4294967295
0.46999985 0.029999999 -0.0099999998 4294967295
0.46999985 0.039999999 -0.0099999998 4294967295
0.46999985 0.050000001 -0.0099999998 4294967295
0.46999985 0.060000002 -0.0099999998 4294967295
0.46999985 0.07 -0.0099999998 4294967295
0.46999985 0.079999998 -0.0099999998 4294967295
0.46999985 0.089999996 -0.0099999998 4294967295
0.46999985 0.099999994 -0.0099999998 4294967295
0.46999985 0.10999999 -0.0099999998 4294967295
0.46999985 0.11999999 -0.0099999998 4294967295
0.46999985 0.13 -0.0099999998 4294967295
0.46999985 0.14 -0.0099999998 4294967295
0.46999985 0.15000001 -0.0099999998 4294967295
0.46999985 0.16000001 -0.0099999998 4294967295
0.46999985 0.17000002 -0.0099999998 4294967295
0.46999985 0.18000002 -0.0099999998 4294967295
0.46999985 0.19000003 -0.0099999998 4294967295
0.46999985 0.20000003 -0.0099999998 4294967295
0.46999985 0.21000004 -0.0099999998 4294967295
0.46999985 0.22000004 -0.0099999998 4294967295
0.46999985 0.23000005 -0.0099999998 4294967295
0.46999985 0.24000005 -0.0099999998 4294967295
0.46999985 0.25000006 -0.0099999998 4294967295
0.46999985 0.26000005 -0.0099999998 4294967295
0.46999985 0.27000004 -0.0099999998 4294967295
0.46999985 0.28000003 -0.0099999998 4294967295
0.46999985 0.29000002 -0.0099999998 4294967295
0.46999985 0.30000001 -0.0099999998 4294967295
0.46999985 0.31 -0.0099999998 4294967295
0.46999985 0.31999999 -0.0099999998 4294967295
0.46999985 0.32999998 -0.0099999998 4294967295
0.46999985 0.33999997 -0.0099999998 4294967295
0.46999985 0.34999996 -0.0099999998 4294967295
0.46999985 0.35999995 -0.0099999998 4294967295
0.46999985 0.36999995 -0.0099999998 4294967295
0.46999985 0.37999994 -0.0099999998 4294967295
0.46999985 0.38999993 -0.0099999998 4294967295
0.46999985 0.39999992 -0.0099999998 4294967295
0.46999985 0.40999991 -0.0099999998 4294967295
0.46999985 0.4199999 -0.0099999998 4294967295
0.46999985 0.42999989 -0.0099999998 4294967295
0.46999985 0.43999988 -0.0099999998 4294967295
0.46999985 0.44999987 -0.0099999998 4294967295
0.46999985 0.45999986 -0.0099999998 4294967295
0.46999985 0.46999985 -0.0099999998 4294967295
0.46999985 0.47999984 -0.0099999998 4294967295
0.46999985 0.48999983 -0.0099999998 4294967295
0.46999985 0.49999982 -0.0099999998 4294967295
0.46999985 0.50999981 -0.0099999998 4294967295
0.46999985 0.5199998 -0.0099999998 4294967295
0.46999985 0.52999979 -0.0099999998 4294967295
0.46999985 0.53999978 -0.0099999998 4294967295
0.46999985 0.54999977 -0.0099999998 4294967295
0.46999985 0.55999976 -0.0099999998 4294967295
0.46999985 0.56999975 -0.0099999998 4294967295
0.46999985 0.57999974 -0.0099999998 4294967295
0.46999985 0.58999974 -0.0099999998 4294967295
0.46999985 0.59999973 -0.0099999998 4294967295
0.46999985 0.60999972 -0.0099999998 4294967295
0.46999985 0.61999971 -0.0099999998 4294967295
0.46999985 0.6299997 -0.0099999998 4294967295
0.46999985 0.63999969 -0.0099999998 4294967295
0.46999985 0.64999968 -0.0099999998 4294967295
0.46999985 0.65999967 -0.0099999998 4294967295
0.46999985 0.66999966 -0.0099999998 4294967295
0.46999985 0.67999965 -0.0099999998 4294967295
0.46999985 0.68999964 -0.0099999998 4294967295
0.46999985 0.69999963 -0.0099999998 4294967295
0.46999985 0.70999962 -0.0099999998 4294967295
0.46999985 0.71999961 -0.0099999998 4294967295
0.46999985 0.7299996 -0.0099999998 4294967295
0.46999985 0.73999959 -0.0099999998 4294967295
0.46999985 0.74999958 -0.0099999998 4294967295
0.46999985 0.75999957 -0.0099999998 4294967295
0.46999985 0.76999956 -0.0099999998 4294967295
0.46999985 0.77999955 -0.0099999998 4294967295
0.46999985 0.78999954 -0.0099999998 4294967295
0.46999985 0.79999954 -0.0099999998 4294967295
0.46999985 0.80999953 -0.0099999998 4294967295
0.46999985 0.81999952 -0.0099999998 4294967295
0.46999985 0.82999951 -0.0099999998 4294967295
0.46999985 0.8399995 -0.0099999998 4294967295
0.46999985 0.84999949 -0.0099999998 4294967295
0.46999985 0.85999948 -0.0099999998 4294967295
0.46999985 0.86999947 -0.0099999998 4294967295
0.46999985 0.87999946 -0.0099999998 4294967295
0.46999985 0.88999945 -0.0099999998 4294967295
0.46999985 0.89999944 -0.0099999998 4294967295
0.46999985 0.90999943 -0.0099999998 4294967295
0.46999985 0.91999942 -0.0099999998 4294967295
0.46999985 0.92999941 -0.0099999998 4294967295
0.46999985 0.9399994 -0.0099999998 4294967295
0.46999985 0.94999939 -0.0099999998 4294967295
0.46999985 0.95999938 -0.0099999998 4294967295
0.46999985 0.96999937 -0.0099999998 4294967295
0.46999985 0.97999936 -0.0099999998 4294967295
0.47999984 0 -0.0099999998 4294967295
0.47999984 0.0099999998 -0.0099999998 4294967295
0.47999984 0.02 -0.0099999998 4294967295
0.47999984 0.029999999 -0.0099999998 4294967295
0.47999984 0.039999999 -0.0099999998 4294967295
0.47999984 0.050000001 -0.0099999998 4294967295
0.47999984 0.060000002 -0.0099999998 4294967295
0.47999984 0.07 -0.0099999998 4294967295
0.47999984 0.079999998 -0.0099999998 4294967295
0.47999984 0.089999996 -0.0099999998 4294967295
0.47999984 0.099999994 -0.0099999998 4294967295
0.47999984 0.10999999 -0.0099999998 4294967295
0.47999984 0.11999999 -0.0099999998 4294967295
0.47999984 0.13 -0.0099999998 4294967295
0.47999984 0.14 -0.0099999998 4294967295
0.47999984 0.15000001 -0.0099999998 4294967295
0.47999984 0.16000001 -0.0099999998 4294967295
0.47999984 0.17000002 -0.0099999998 4294967295
0.47999984 0.18000002 -0.0099999998 4294967295
0.47999984 0.19000003 -0.0099999998 4294967295
0.47999984 0.20000003 -0.0099999998 4294967295
0.47999984 0.21000004 -0.0099999998 4294967295
0.47999984 0.22000004 -0.0099999998 4294967295
0.47999984 0.23000005 -0.0099999998 4294967295
0.47999984 0.24000005 -0.0099999998 4294967295
0.47999984 0.25000006 -0.0099999998 4294967295
0.47999984 0.26000005 -0.0099999998 4294967295
0.47999984 0.27000004 -0.0099999998 4294967295
0.47999984 0.28000003 -0.0099999998 4294967295
0.47999984 0.29000002 -0.0099999998 4294967295
0.47999984 0.30000001 -0.0099999998 4294967295
0.47999984 0.31 -0.0099999998 4294967295
0.47999984 0.31999999 -0.0099999998 4294967295
0.47999984 0.32999998 -0.0099999998 4294967295
0.47999984 0.33999997 -0.0099999998 4294967295
0.47999984 0.34999996 -0.0099999998 4294967295
0.47999984 0.35999995 -0.0099999998 4294967295
0.47999984 0.36999995 -0.0099999998 4294967295
0.47999984 0.37999994 -0.0099999998 4294967295
0.47999984 0.38999993 -0.0099999998 4294967295
0.47999984 0.39999992 -0.0099999998 4294967295
0.47999984 0.40999991 -0.0099999998 4294967295
0.47999984 0.4199999 -0.0099999998 4294967295
0.47999984 0.42999989 -0.0099999998 4294967295
0.47999984 0.43999988 -0.0099999998 4294967295
0.47999984 0.44999987 -0.0099999998 4294967295
0.47999984 0.45999986 -0.0099999998 4294967295
0.47999984 0.46999985 -0.0099999998 4294967295
0.47999984 0.47999984 -0.0099999998 4294967295
0.47999984 0.48999983 -0.0099999998 4294967295
0.47999984 0.49999982 -0.0099999998 4294967295
0.47999984 0.50999981 -0.0099999998 4294967295
0.47999984 0.5199998 -0.0099999998 4294967295
0.47999984 0.52999979 -0.0099999998 4294967295
0.47999984 0.53999978 -0.0099999998 4294967295
0.47999984 0.54999977 -0.0099999998 4294967295
0.47999984 0.55999976 -0.0099999998 4294967295
0.47999984 0.56999975 -0.0099999998 4294967295
0.47999984 0.57999974 -0.0099999998 4294967295
0.47999984 0.58999974 -0.0099999998 4294967295
0.47999984 0.59999973 -0.0099999998 4294967295
0.47999984 0.60999972 -0.0099999998 4294967295
0.47999984 0.61999971 -0.0099999998 4294967295
0.47999984 0.6299997 -0.0099999998 4294967295
0.47999984 0.63999969 -0.0099999998 4294967295
0.47999984 0.64999968 -0.0099999998 4294967295
0.47999984 0.65999967 -0.0099999998 4294967295
0.47999984 0.66999966 -0.0099999998 4294967295
0.47999984 0.67999965 -0.0099999998 4294967295
0.47999984 0.68999964 -0.0099999998 4294967295
0.47999984 0.69999963 -0.0099999998 4294967295
0.47999984 0.70999962 -0.0099999998 4294967295
0.47999984 0.71999961 -0.0099999998 4294967295
0.47999984 0.7299996 -0.0099999998 4294967295
0.47999984 0.73999959 -0.0099999998 4294967295
0.47999984 0.74999958 -0.0099999998 4294967295
0.47999984 0.75999957 -0.0099999998 4294967295
0.47999984 0.76999956 -0.0099999998 4294967295
0.47999984 0.77999955 -0.0099999998 4294967295
0.47999984 0.78999954 -0.0099999998 4294967295
0.47999984 0.79999954 -0.0099999998 4294967295
0.47999984 0.80999953 -0.0099999998 4294967295
0.47999984 0.81999952 -0.0099999998 4294967295
0.47999984 0.82999951 -0.0099999998 4294967295
0.47999984 0.8399995 -0.0099999998 4294967295
0.47999984 0.84999949 -0.0099999998 4294967295
0.47999984 0.85999948 -0.0099999998 4294967295
0.47999984 0.86999947 -0.0099999998 4294967295
0.47999984 0.87999946 -0.0099999998 4294967295
0.47999984 0.88999945 -0.0099999998 4294967295
0.47999984 0.89999944 -0.0099999998 4294967295
0.47999984 0.90999943 -0.0099999998 4294967295
0.47999984 0.91999942 -0.0099999998 4294967295
0.47999984 0.92999941 -0.0099999998 4294967295
0.47999984 0.9399994 -0.0099999998 4294967295
0.47999984 0.94999939 -0.0099999998 4294967295
0.47999984 0.95999938 -0.0099999998 4294967295
0.47999984 0.96999937 -0.0099999998 4294967295
0.47999984 0.97999936 -0.0099999998 4294967295
0.25 0.25 0.25 4294967295
0.25 0.25999999 0.25 4294967295
0.25 0.26999998 0.25 4294967295
0.25 0.27999997 0.25 4294967295
0.25 0.28999996 0.25 4294967295
0.25 0.29999995 0.25 4294967295
0.25 0.30999994 0.25 4294967295
0.25 0.31999993 0.25 4294967295
0.25 0.32999992 0.25 4294967295
0.25 0.33999991 0.25 4294967295
0.25 0.3499999 0.25 4294967295
0.25 0.3599999 0.25 4294967295
0.25 0.25 0.23999999 4294967295
0.25 0.25999999 0.23999999 4294967295
0.25 0.26999998 0.23999999 4294967295
0.25 0.27999997 0.23999999 4294967295
0.25 0.28999996 0.23999999 4294967295
0.25 0.29999995 0.23999999 4294967295
0.25 0.30999994 0.23999999 4294967295
0.25 0.31999993 0.23999999 4294967295
0.25 0.32999992 0.23999999 4294967295
0.25 0.33999991 0.23999999 4294967295
0.25 0.3499999 0.23999999 4294967295
0.25 0.3599999 0.23999999 4294967295
0.25 0.25 0.22999999 4294967295
0.25 0.25999999 0.22999999 4294967295
0.25 0.26999998 0.22999999 4294967295
0.25 0.27999997 0.22999999 4294967295
0.25 0.28999996 0.22999999 4294967295
0.25 0.29999995 0.22999999 4294967295
0.25 0.30999994 0.22999999 4294967295
0.25 0.31999993 0.22999999 4294967295
0.25 0.32999992 0.22999999 4294967295
0.25 0.33999991 0.22999999 4294967295
0.25 0.3499999 0.22999999 4294967295
0.25 0.3599999 0.22999999 4294967295
0.25 0.25 0.21999998 4294967295
0.25 0.25999999 0.21999998 4294967295
0.25 0.26999998 0.21999998 4294967295
0.25 0.27999997 0.21999998 4294967295
0.25 0.28999996 0.21999998 4294967295
0.25 0.29999995 0.21999998 4294967295
0.25 0.30999994 0.21999998 4294967295
0.25 0.31999993 0.21999998 4294967295
0.25 0.32999992 0.21999998 4294967295
0.25 0.33999991 0.21999998 4294967295
0.25 0.3499999 0.21999998 4294967295
0.25 0.3599999 0.21999998 4294967295
0.25 0.25 0.20999998 4294967295
0.25 0.25999999 0.20999998 4294967295
0.25 0.26999998 0.20999998 4294967295
0.25 0.27999997 0.20999998 4294967295
0.25 0.28999996 0.20999998 4294967295
0.25 0.29999995 0.20999998 4294967295
0.25 0.30999994 0.20999998 4294967295
0.25 0.31999993 0.20999998 4294967295
0.25 0.32999992 0.20999998 4294967295
0.25 0.33999991 0.20999998 4294967295
0.25 0.3499999 0.20999998 4294967295
0.25 0.3599999 0.20999998 4294967295
0.25 0.25 0.19999997 4294967295
0.25 0.25999999 0.19999997 4294967295
0.25 0.26999998 0.19999997 4294967295
0.25 0.27999997 0.19999997 4294967295
0.25 0.28999996 0.19999997 4294967295
0.25 0.29999995 0.19999997 4294967295
0.25 0.30999994 0.19999997 4294967295
0.25 0.31999993 0.19999997 4294967295
0.25 0.32999992 0.19999997 4294967295
0.25 0.33999991 0.19999997 4294967295
0.25 0.3499999 0.19999997 4294967295
0.25 0.3599999 0.19999997 4294967295
0.25 0.25 0.18999997 4294967295
0.25 0.25999999 0.18999997 4294967295
0.25 0.26999998 0.18999997 4294967295
0.25 0.27999997 0.18999997 4294967295
0.25 0.28999996 0.18999997 4294967295
0.25 0.29999995 0.18999997 4294967295
0.25 0.30999994 0.18999997 4294967295
0.25 0.31999993 0.18999997 4294967295
0.25 0.32999992 0.18999997 4294967295
0.25 0.33999991 0.18999997 4294967295
0.25 0.3499999 0.18999997 4294967295
0.25 0.3599999 0.18999997 4294967295
0.25 0.25 0.17999996 4294967295
0.25 0.25999999 0.17999996 4294967295
0.25 0.26999998 0.17999996 4294967295
0.25 0.27999997 0.17999996 4294967295
0.25 0.28999996 0.17999996 4294967295
0.25 0.29999995 0.17999996 4294967295
0.25 0.30999994 0.17999996 4294967295
0.25 0.31999993 0.17999996 4294967295
0.25 0.32999992 0.17999996 4294967295
0.25 0.33999991 0.17999996 4294967295
0.25 0.3499999 0.17999996 4294967295
0.25 0.3599999 0.17999996 4294967295
0.25 0.25 0.16999996 4294967295
0.25 0.25999999 0.16999996 4294967295
0.25 0.26999998 0.16999996 4294967295
0.25 0.27999997 0.16999996 4294967295
0.25 0.28999996 0.16999996 4294967295
0.25 0.29999995 0.16999996 4294967295
0.25 0.30999994 0.16999996 4294967295
0.25 0.31999993 0.16999996 4294967295
0.25 0.32999992 0.16999996 4294967295
0.25 0.33999991 0.16999996 4294967295
0.25 0.3499999 0.16999996 4294967295
0.25 0.3599999 0.16999996 4294967295
0.25 0.25 0.15999995 4294967295
0.25 0.25999999 0.15999995 4294967295
0.25 0.26999998 0.15999995 4294967295
0.25 0.27999997 0.15999995 4294967295
0.25 0.28999996 0.15999995 4294967295
0.25 0.29999995 0.15999995 4294967295
0.25 0.30999994 0.15999995 4294967295
0.25 0.31999993 0.15999995 4294967295
0.25 0.32999992 0.15999995 4294967295
0.25 0.33999991 0.15999995 4294967295
0.25 0.3499999 0.15999995 4294967295
0.25 0.3599999 0.15999995 4294967295
0.25 0.25 0.14999995 4294967295
0.25 0.25999999 0.14999995 4294967295
0.25 0.26999998 0.14999995 4294967295
0.25 0.27999997 0.14999995 4294967295
0.25 0.28999996 0.14999995 4294967295
0.25 0.29999995 0.14999995 4294967295
0.25 0.30999994 0.14999995 4294967295
0.25 0.31999993 0.14999995 4294967295
0.25 0.32999992 0.14999995 4294967295
0.25 0.33999991 0.14999995 4294967295
0.25 0.3499999 0.14999995 4294967295
0.25 0.3599999 0.14999995 4294967295
0.25 0.25 0.13999994 4294967295
0.25 0.25999999 0.13999994 4294967295
0.25 0.26999998 0.13999994 4294967295
0.25 0.27999997 0.13999994 4294967295
0.25 0.28999996 0.13999994 4294967295
0.25 0.29999995 0.13999994 4294967295
0.25 0.30999994 0.13999994 4294967295
0.25 0.31999993 0.13999994 4294967295
0.25 0.32999992 0.13999994 4294967295
0.25 0.33999991 0.13999994 4294967295
0.25 0.3499999 0.13999994 4294967295
0.25 0.3599999 0.13999994 4294967295
0.25 0.25 0.12999994 4294967295
0.25 0.25999999 0.12999994 4294967295
0.25 0.26999998 0.12999994 4294967295
0.25 0.27999997 0.12999994 4294967295
0.25 0.28999996 0.12999994 4294967295
0.25 0.29999995 0.12999994 4294967295
0.25 0.30999994 0.12999994 4294967295
0.25 0.31999993 0.12999994 4294967295
0.25 0.32999992 0.12999994 4294967295
0.25 0.33999991 0.12999994 4294967295
0.25 0.3499999 0.12999994 4294967295
0.25 0.3599999 0.12999994 4294967295
0.25 0.25 0.11999994 4294967295
0.25 0.25999999 0.11999994 4294967295
0.25 0.26999998 0.11999994 4294967295
0.25 0.27999997 0.11999994 4294967295
0.25 0.28999996 0.11999994 4294967295
0.25 0.29999995 0.11999994 4294967295
0.25 0.30999994 0.11999994 4294967295
0.25 0.31999993 0.11999994 4294967295
0.25 0.32999992 0.11999994 4294967295
0.25 0.33999991 0.11999994 4294967295
0.25 0.3499999 0.11999994 4294967295
0.25 0.3599999 0.11999994 4294967295
0.25 0.25 0.10999994 4294967295
0.25 0.25999999 0.10999994 4294967295
0.25 0.26999998 0.10999994 4294967295
0.25 0.27999997 0.10999994 4294967295
0.25 0.28999996 0.10999994 4294967295
0.25 0.29999995 0.10999994 4294967295
0.25 0.30999994 0.10999994 4294967295
0.25 0.31999993 0.10999994 4294967295
0.25 0.32999992 0.10999994 4294967295
0.25 0.33999991 0.10999994 4294967295
0.25 0.3499999 0.10999994 4294967295
0.25 0.3599999 0.10999994 4294967295
0.25 0.25 0.099999942 4294967295
0.25 0.25999999 0.099999942 4294967295
0.25 0.26999998 0.099999942 4294967295
0.25 0.27999997 0.099999942 4294967295
0.25 0.28999996 0.099999942 4294967295
0.25 0.29999995 0.099999942 4294967295
0.25 0.30999994 0.099999942 4294967295
0.25 0.31999993 0.099999942 4294967295
0.25 0.32999992 0.099999942 4294967295
0.25 0.33999991 0.099999942 4294967295
0.25 0.3499999 0.099999942 4294967295
0.25 0.3599999 0.099999942 4294967295
0.25 0.25 0.089999944 4294967295
0.25 0.25999999 0.089999944 4294967295
0.25 0.26999998 0.089999944 4294967295
0.25 0.27999997 0.089999944 4294967295
0.25 0.28999996 0.089999944 4294967295
0.25 0.29999995 0.089999944 4294967295
0.25 0.30999994 0.089999944 4294967295
0.25 0.31999993 0.089999944 4294967295
0.25 0.32999992 0.089999944 4294967295
0.25 0.33999991 0.089999944 4294967295
0.25 0.3499999 0.089999944 4294967295
0.25 0.3599999 0.089999944 4294967295
0.25 0.25 0.079999946 4294967295
0.25 0.25999999 0.079999946 4294967295
0.25 0.26999998 0.079999946 4294967295
0.25 0.27999997 0.079999946 4294967295
0.25 0.28999996 0.079999946 4294967295
0.25 0.29999995 0.079999946 4294967295
0.25 0.30999994 0.079999946 4294967295
0.25 0.31999993 0.079999946 4294967295
0.25 0.32999992 0.079999946 4294967295
0.25 0.33999991 0.079999946 4294967295
0.25 0.3499999 0.079999946 4294967295
0.25 0.3599999 0.079999946 4294967295
0.25 0.25 0.069999948 4294967295
0.25 0.25999999 0.069999948 4294967295
0.25 0.26999998 0.069999948 4294967295
0.25 0.27999997 0.069999948 4294967295
0.25 0.28999996 0.069999948 4294967295
0.25 0.29999995 0.069999948 4294967295
0.25 0.30999994 0.069999948 4294967295
0.25 0.31999993 0.069999948 4294967295
0.25 0.32999992 0.069999948 4294967295
0.25 0.33999991 0.069999948 4294967295
0.25 0.3499999 0.069999948 4294967295
0.25 0.3599999 0.069999948 4294967295
0.25 0.25 0.059999947 4294967295
0.25 0.25999999 0.059999947 4294967295
0.25 0.26999998 0.059999947 4294967295
0.25 0.27999997 0.059999947 4294967295
0.25 0.28999996 0.059999947 4294967295
0.25 0.29999995 0.059999947 4294967295
0.25 0.30999994 0.059999947 4294967295
0.25 0.31999993 0.059999947 4294967295
0.25 0.32999992 0.059999947 4294967295
0.25 0.33999991 0.059999947 4294967295
0.25 0.3499999 0.059999947 4294967295
0.25 0.3599999 0.059999947 4294967295
0.25 0.25 0.049999945 4294967295
0.25 0.25999999 0.049999945 4294967295
0.25 0.26999998 0.049999945 4294967295
0.25 0.27999997 0.049999945 4294967295
0.25 0.28999996 0.049999945 4294967295
0.25 0.29999995 0.049999945 4294967295
0.25 0.30999994 0.049999945 4294967295
0.25 0.31999993 0.049999945 4294967295
0.25 0.32999992 0.049999945 4294967295
0.25 0.33999991 0.049999945 4294967295
0.25 0.3499999 0.049999945 4294967295
0.25 0.3599999 0.049999945 4294967295
0.25 0.25 0.039999943 4294967295
0.25 0.25999999 0.039999943 4294967295
0.25 0.26999998 0.039999943 4294967295
0.25 0.27999997 0.039999943 4294967295
0.25 0.28999996 0.039999943 4294967295
0.25 0.29999995 0.039999943 4294967295
0.25 0.30999994 0.039999943 4294967295
0.25 0.31999993 0.039999943 4294967295
0.25 0.32999992 0.039999943 4294967295
0.25 0.33999991 0.039999943 4294967295
0.25 0.3499999 0.039999943 4294967295
0.25 0.3599999 0.039999943 4294967295
0.25 0.25 0.029999943 4294967295
0.25 0.25999999 0.029999943 4294967295
0.25 0.26999998 0.029999943 4294967295
0.25 0.27999997 0.029999943 4294967295
0.25 0.28999996 0.029999943 4294967295
0.25 0.29999995 0.029999943 4294967295
0.25 0.30999994 0.029999943 4294967295
0.25 0.31999993 0.029999943 4294967295
0.25 0.32999992 0.029999943 4294967295
0.25 0.33999991 0.029999943 4294967295
0.25 0.3499999 0.029999943 4294967295
0.25 0.3599999 0.029999943 4294967295
0.25 0.25 0.019999944 4294967295
0.25 0.25999999 0.019999944 4294967295
0.25 0.26999998 0.019999944 4294967295
0.25 0.27999997 0.019999944 4294967295
0.25 0.28999996 0.019999944 4294967295
0.25 0.29999995 0.019999944 4294967295
0.25 0.30999994 0.019999944 4294967295
0.25 0.31999993 0.019999944 4294967295
0.25 0.32999992 0.019999944 4294967295
0.25 0.33999991 0.019999944 4294967295
0.25 0.3499999 0.019999944 4294967295
0.25 0.3599999 0.019999944 4294967295
0.25 0.25 0.25 4294967295
0.25999999 0.25 0.25 4294967295
0.26999998 0.25 0.25 4294967295
0.27999997 0.25 0.25 4294967295
0.28999996 0.25 0.25 4294967295
0.29999995 0.25 0.25 4294967295
0.30999994 0.25 0.25 4294967295
0.31999993 0.25 0.25 4294967295
0.32999992 0.25 0.25 4294967295
0.33999991 0.25 0.25 4294967295
0.3499999 0.25 0.25 4294967295
0.3599999 0.25 0.25 4294967295
0.25 0.25 0.23999999 4294967295
0.25999999 0.25 0.23999999 4294967295
0.26999998 0.25 0.23999999 4294967295
0.27999997 0.25 0.23999999 4294967295
0.28999996 0.25 0.23999999 4294967295
0.29999995 0.25 0.23999999 4294967295
0.30999994 0.25 0.23999999 4294967295
0.31999993 0.25 0.23999999 4294967295
0.32999992 0.25 0.23999999 4294967295
0.33999991 0.25 0.23999999 4294967295
0.3499999 0.25 0.23999999 4294967295
0.3599999 0.25 0.23999999 4294967295
0.25 0.25 0.22999999 4294967295
0.25999999 0.25 0.22999999 4294967295
0.26999998 0.25 0.22999999 4294967295
0.27999997 0.25 0.22999999 4294967295
0.28999996 0.25 0.22999999 4294967295
0.29999995 0.25 0.22999999 4294967295
0.30999994 0.25 0.22999999 4294967295
0.31999993 0.25 0.22999999 4294967295
0.32999992 0.25 0.22999999 4294967295
0.33999991 0.25 0.22999999 4294967295
0.3499999 0.25 0.22999999 4294967295
0.3599999 0.25 0.22999999 4294967295
0.25 0.25 0.21999998 4294967295
0.25999999 0.25 0.21999998 4294967295
0.26999998 0.25 0.21999998 4294967295
0.27999997 0.25 0.21999998 4294967295
0.28999996 0.25 0.21999998 4294967295
0.29999995 0.25 0.21999998 4294967295
0.30999994 0.25 0.21999998 4294967295
0.31999993 0.25 0.21999998 4294967295
0.32999992 0.25 0.21999998 4294967295
0.33999991 0.25 0.21999998 4294967295
0.3499999 0.25 0.21999998 4294967295
0.3599999 0.25 0.21999998 4294967295
0.25 0.25 0.20999998 4294967295
0.25999999 0.25 0.20999998 4294967295
0.26999998 0.25 0.20999998 4294967295
0.27999997 0.25 0.20999998 4294967295
0.28999996 0.25 0.20999998 4294967295
0.29999995 0.25 0.20999998 4294967295
0.30999994 0.25 0.20999998 4294967295
0.31999993 0.25 0.20999998 4294967295
0.32999992 0.25 0.20999998 4294967295
0.33999991 0.25 0.20999998 4294967295
0.3499999 0.25 0.20999998 4294967295
0.3599999 0.25 0.20999998 4294967295
0.25 0.25 0.19999997 4294967295
0.25999999 0.25 0.19999997 4294967295
0.26999998 0.25 0.19999997 4294967295
0.27999997 0.25 0.19999997 4294967295
0.28999996 0.25 0.19999997 4294967295
0.29999995 0.25 0.19999997 4294967295
0.30999994 0.25 0.19999997 4294967295
0.31999993 0.25 0.19999997 4294967295
0.32999992 0.25 0.19999997 4294967295
0.33999991 0.25 0.19999997 4294967295
0.3499999 0.25 0.19999997 4294967295
0.3599999 0.25 0.19999997 4294967295
0.25 0.25 0.18999997 4294967295
0.25999999 0.25 0.18999997 4294967295
0.26999998 0.25 0.18999997 4294967295
0.27999997 0.25 0.18999997 4294967295
0.28999996 0.25 0.18999997 4294967295
0.29999995 0.25 0.18999997 4294967295
0.30999994 0.25 0.18999997 4294967295
0.31999993 0.25 0.18999997 4294967295
0.32999992 0.25 0.18999997 4294967295
0.33999991 0.25 0.18999997 4294967295
0.3499999 0.25 0.18999997 4294967295
0.3599999 0.25 0.18999997 4294967295
0.25 0.25 0.17999996 4294967295
0.25999999 0.25 0.17999996 4294967295
0.26999998 0.25 0.17999996 4294967295
0.27999997 0.25 0.17999996 4294967295
0.28999996 0.25 0.17999996 4294967295
0.29999995 0.25 0.17999996 4294967295
0.30999994 0.25 0.17999996 4294967295
0.31999993 0.25 0.17999996 4294967295
0.32999992 0.25 0.17999996 4294967295
0.33999991 0.25 0.17999996 4294967295
0.3499999 0.25 0.17999996 4294967295
0.3599999 0.25 0.17999996 4294967295
0.25 0.25 0.16999996 4294967295
0.25999999 0.25 0.16999996 4294967295
0.26999998 0.25 0.16999996 4294967295
0.27999997 0.25 0.16999996 4294967295
0.28999996 0.25 0.16999996 4294967295
0.29999995 0.25 0.16999996 4294967295
0.30999994 0.25 0.16999996 4294967295
0.31999993 0.25 0.16999996 4294967295
0.32999992 0.25 0.16999996 4294967295
0.33999991 0.25 0.16999996 4294967295
0.3499999 0.25 0.16999996 4294967295
0.3599999 0.25 0.16999996 4294967295
0.25 0.25 0.15999995 4294967295
0.25999999 0.25 0.15999995 4294967295
0.26999998 0.25 0.15999995 4294967295
0.27999997 0.25 0.15999995 4294967295
0.28999996 0.25 0.15999995 4294967295
0.29999995 0.25 0.15999995 4294967295
0.30999994 0.25 0.15999995 4294967295
0.31999993 0.25 0.15999995 4294967295
0.32999992 0.25 0.15999995 4294967295
0.33999991 0.25 0.15999995 4294967295
0.3499999 0.25 0.15999995 4294967295
0.3599999 0.25 0.15999995 4294967295
0.25 0.25 0.14999995 4294967295
0.25999999 0.25 0.14999995 4294967295
0.26999998 0.25 0.14999995 4294967295
0.27999997 0.25 0.14999995 4294967295
0.28999996 0.25 0.14999995 4294967295
0.29999995 0.25 0.14999995 4294967295
0.30999994 0.25 0.14999995 4294967295
0.31999993 0.25 0.14999995 4294967295
0.32999992 0.25 0.14999995 4294967295
0.33999991 0.25 0.14999995 4294967295
0.3499999 0.25 0.14999995 4294967295
0.3599999 0.25 0.14999995 4294967295
0.25 0.25 0.13999994 4294967295
0.25999999 0.25 0.13999994 4294967295
0.26999998 0.25 0.13999994 4294967295
0.27999997 0.25 0.13999994 4294967295
0.28999996 0.25 0.13999994 4294967295
0.29999995 0.25 0.13999994 4294967295
0.30999994 0.25 0.13999994 4294967295
0.31999993 0.25 0.13999994 4294967295
0.32999992 0.25 0.13999994 4294967295
0.33999991 0.25 0.13999994 4294967295
0.3499999 0.25 0.13999994 4294967295
0.3599999 0.25 0.13999994 4294967295
0.25 0.25 0.12999994 4294967295
0.25999999 0.25 0.12999994 4294967295
0.26999998 0.25 0.12999994 4294967295
0.27999997 0.25 0.12999994 4294967295
0.28999996 0.25 0.12999994 4294967295
0.29999995 0.25 0.12999994 4294967295
0.30999994 0.25 0.12999994 4294967295
0.31999993 0.25 0.12999994 4294967295
0.32999992 0.25 0.12999994 4294967295
0.33999991 0.25 0.12999994 4294967295
0.3499999 0.25 0.12999994 4294967295
0.3599999 0.25 0.12999994 4294967295
0.25 0.25 0.11999994 4294967295
0.25999999 0.25 0.11999994 4294967295
0.26999998 0.25 0.11999994 4294967295
0.27999997 0.25 0.11999994 4294967295
0.28999996 0.25 0.11999994 4294967295
0.29999995 0.25 0.11999994 4294967295
0.30999994 0.25 0.11999994 4294967295
0.31999993 0.25 0.11999994 4294967295
0.32999992 0.25 0.11999994 4294967295
0.33999991 0.25 0.11999994 4294967295
0.3499999 0.25 0.11999994 4294967295
0.3599999 0.25 0.11999994 4294967295
0.25 0.25 0.10999994 4294967295
0.25999999 0.25 0.10999994 4294967295
0.26999998 0.25 0.10999994 4294967295
0.27999997 0.25 0.10999994 4294967295
0.28999996 0.25 0.10999994 4294967295
0.29999995 0.25 0.10999994 4294967295
0.30999994 0.25 0.10999994 4294967295
0.31999993 0.25 0.10999994 4294967295
0.32999992 0.25 0.10999994 4294967295
0.33999991 0.25 0.10999994 4294967295
0.3499999 0.25 0.10999994 4294967295
0.3599999 0.25 0.10999994 4294967295
0.25 0.25 0.099999942 4294967295
0.25999999 0.25 0.099999942 4294967295
0.26999998 0.25 0.099999942 4294967295
0.27999997 0.25 0.099999942 4294967295
0.28999996 0.25 0.099999942 4294967295
0.29999995 0.25 0.099999942 4294967295
0.30999994 0.25 0.099999942 4294967295
0.31999993 0.25 0.099999942 4294967295
0.32999992 0.25 0.099999942 4294967295
0.33999991 0.25 0.099999942 4294967295
0.3499999 0.25 0.099999942 4294967295
0.3599999 0.25 0.099999942 4294967295
0.25 0.25 0.089999944 4294967295
0.25999999 0.25 0.089999944 4294967295
0.26999998 0.25 0.089999944 4294967295
0.27999997 0.25 0.089999944 4294967295
0.28999996 0.25 0.089999944 4294967295
0.29999995 0.25 0.089999944 4294967295
0.30999994 0.25 0.089999944 4294967295
0.31999993 0.25 0.089999944 4294967295
0.32999992 0.25 0.089999944 4294967295
0.33999991 0.25 0.089999944 4294967295
0.3499999 0.25 0.089999944 4294967295
0.3599999 0.25 0.089999944 4294967295
0.25 0.25 0.079999946 4294967295
0.25999999 0.25 0.079999946 4294967295
0.26999998 0.25 0.079999946 4294967295
0.27999997 0.25 0.079999946 4294967295
0.28999996 0.25 0.079999946 4294967295
0.29999995 0.25 0.079999946 4294967295
0.30999994 0.25 0.079999946 4294967295
0.31999993 0.25 0.079999946 4294967295
0.32999992 0.25 0.079999946 4294967295
0.33999991 0.25 0.079999946 4294967295
0.3499999 0.25 0.079999946 4294967295
0.3599999 0.25 0.079999946 4294967295
0.25 0.25 0.069999948 4294967295
0.25999999 0.25 0.069999948 4294967295
0.26999998 0.25 0.069999948 4294967295
0.27999997 0.25 0.069999948 4294967295
0.28999996 0.25 0.069999948 4294967295
0.29999995 0.25 0.069999948 4294967295
0.30999994 0.25 0.069999948 4294967295
0.31999993 0.25 0.069999948 4294967295
0.32999992 0.25 0.069999948 4294967295
0.33999991 0.25 0.069999948 4294967295
0.3499999 0.25 0.069999948 4294967295
0.3599999 0.25 0.069999948 4294967295
0.25 0.25 0.059999947 4294967295
0.25999999 0.25 0.059999947 4294967295
0.26999998 0.25 0.059999947 4294967295
0.27999997 0.25 0.059999947 4294967295
0.28999996 0.25 0.059999947 4294967295
0.29999995 0.25 0.059999947 4294967295
0.30999994 0.25 0.059999947 4294967295
0.31999993 0.25 0.059999947 4294967295
0.32999992 0.25 0.059999947 4294967295
0.33999991 0.25 0.059999947 4294967295
0.3499999 0.25 0.059999947 4294967295
0.3599999 0.25 0.059999947 4294967295
0.25 0.25 0.049999945 4294967295
0.25999999 0.25 0.049999945 4294967295
0.26999998 0.25 0.049999945 4294967295
0.27999997 0.25 0.049999945 4294967295
0.28999996 0.25 0.049999945 4294967295
0.29999995 0.25 0.049999945 4294967295
0.30999994 0.25 0.049999945 4294967295
0.31999993 0.25 0.049999945 4294967295
0.32999992 0.25 0.049999945 4294967295
0.33999991 0.25 0.049999945 4294967295
0.3499999 0.25 0.049999945 4294967295
0.3599999 0.25 0.049999945 4294967295
0.25 0.25 0.039999943 4294967295
0.25999999 0.25 0.039999943 4294967295
0.26999998 0.25 0.039999943 4294967295
0.27999997 0.25 0.039999943 4294967295
0.28999996 0.25 0.039999943 4294967295
0.29999995 0.25 0.039999943 4294967295
0.30999994 0.25 0.039999943 4294967295
0.31999993 0.25 0.039999943 4294967295
0.32999992 0.25 0.039999943 4294967295
0.33999991 0.25 0.039999943 4294967295
0.3499999 0.25 0.039999943 4294967295
0.3599999 0.25 0.039999943 4294967295
0.25 0.25 0.029999943 4294967295
0.25999999 0.25 0.029999943 4294967295
0.26999998 0.25 0.029999943 4294967295
0.27999997 0.25 0.029999943 4294967295
0.28999996 0.25 0.029999943 4294967295
0.29999995 0.25 0.029999943 4294967295
0.30999994 0.25 0.029999943 4294967295
0.31999993 0.25 0.029999943 4294967295
0.32999992 0.25 0.029999943 4294967295
0.33999991 0.25 0.029999943 4294967295
0.3499999 0.25 0.029999943 4294967295
0.3599999 0.25 0.029999943 4294967295
0.25 0.25 0.019999944 4294967295
0.25999999 0.25 0.019999944 4294967295
0.26999998 0.25 0.019999944 4294967295
0.27999997 0.25 0.019999944 4294967295
0.28999996 0.25 0.019999944 4294967295
0.29999995 0.25 0.019999944 4294967295
0.30999994 0.25 0.019999944 4294967295
0.31999993 0.25 0.019999944 4294967295
0.32999992 0.25 0.019999944 4294967295
0.33999991 0.25 0.019999944 4294967295
0.3499999 0.25 0.019999944 4294967295
0.3599999 0.25 0.019999944 4294967295
0.36000001 0.25 0.25 4294967295
0.36000001 0.25999999 0.25 4294967295
0.36000001 0.26999998 0.25 4294967295
0.36000001 0.27999997 0.25 4294967295
0.36000001 0.28999996 0.25 4294967295
0.36000001 0.29999995 0.25 4294967295
0.36000001 0.30999994 0.25 4294967295
0.36000001 0.31999993 0.25 4294967295
0.36000001 0.32999992 0.25 4294967295
0.36000001 0.33999991 0.25 4294967295
0.36000001 0.3499999 0.25 4294967295
0.36000001 0.3599999 0.25 4294967295
0.36000001 0.25 0.23999999 4294967295
0.36000001 0.25999999 0.23999999 4294967295
0.36000001 0.26999998 0.23999999 4294967295
0.36000001 0.27999997 0.23999999 4294967295
0.36000001 0.28999996 0.23999999 4294967295
0.36000001 0.29999995 0.23999999 4294967295
0.36000001 0.30999994 0.23999999 4294967295
0.36000001 0.31999993 0.23999999 4294967295
0.36000001 0.32999992 0.23999999 4294967295
0.36000001 0.33999991 0.23999999 4294967295
0.36000001 0.3499999 0.23999999 4294967295
0.36000001 0.3599999 0.23999999 4294967295
0.36000001 0.25 0.22999999 4294967295
0.36000001 0.25999999 0.22999999 4294967295
0.36000001 0.26999998 0.22999999 4294967295
0.36000001 0.27999997 0.22999999 4294967295
0.36000001 0.28999996 0.22999999 4294967295
0.36000001 0.29999995 0.22999999 4294967295
0.36000001 0.30999994 0.22999999 4294967295
0.36000001 0.31999993 0.22999999 4294967295
0.36000001 0.32999992 0.22999999 4294967295
0.36000001 0.33999991 0.22999999 4294967295
0.36000001 0.3499999 0.22999999 4294967295
0.36000001 0.3599999 0.22999999 4294967295
0.36000001 0.25 0.21999998 4294967295
0.36000001 0.25999999 0.21999998 4294967295
0.36000001 0.26999998 0.21999998 4294967295
0.36000001 0.27999997 0.21999998 4294967295
0.36000001 0.28999996 0.21999998 4294967295
0.36000001 0.29999995 0.21999998 4294967295
0.36000001 0.30999994 0.21999998 4294967295
0.36000001 0.31999993 0.21999998 4294967295
0.36000001 0.32999992 0.21999998 4294967295
0.36000001 0.33999991 0.21999998 4294967295
0.36000001 0.3499999 0.21999998 4294967295
0.36000001 0.3599999 0.21999998 4294967295
0.36000001 0.25 0.20999998 4294967295
0.36000001 0.25999999 0.20999998 4294967295
0.36000001 0.26999998 0.20999998 4294967295
0.36000001 0.27999997 0.20999998 4294967295
0.36000001 0.28999996 0.20999998 4294967295
0.36000001 0.29999995 0.20999998 4294967295
0.36000001 0.30999994 0.20999998 4294967295
0.36000001 0.31999993 0.20999998 4294967295
0.36000001 0.32999992 0.20999998 4294967295
0.36000001 0.33999991 0.20999998 4294967295
0.36000001 0.3499999 0.20999998 4294967295
0.36000001 0.3599999 0.20999998 4294967295
0.36000001 0.25 0.19999997 4294967295
0.36000001 0.25999999 0.19999997 4294967295
0.36000001 0.26999998 0.19999997 4294967295
0.36000001 0.27999997 0.19999997 4294967295
0.36000001 0.28999996 0.19999997 4294967295
0.36000001 0.29999995 0.19999997 4294967295
0.36000001 0.30999994 0.19999997 4294967295
0.36000001 0.31999993 0.19999997 4294967295
0.36000001 0.32999992 0.19999997 4294967295
0.36000001 0.33999991 0.19999997 4294967295
0.36000001 0.3499999 0.19999997 4294967295
0.36000001 0.3599999 0.19999997 4294967295
0.36000001 0.25 0.18999997 4294967295
0.36000001 0.25999999 0.18999997 4294967295
0.36000001 0.26999998 0.18999997 4294967295
0.36000001 0.27999997 0.18999997 4294967295
0.36000001 0.28999996 0.18999997 4294967295
0.36000001 0.29999995 0.18999997 4294967295
0.36000001 0.30999994 0.18999997 4294967295
0.36000001 0.31999993 0.18999997 4294967295
0.36000001 0.32999992 0.18999997 4294967295
0.36000001 0.33999991 0.18999997 4294967295
0.36000001 0.3499999 0.18999997 4294967295
0.36000001 0.3599999 0.18999997 4294967295
0.36000001 0.25 0.17999996 4294967295
0.36000001 0.25999999 0.17999996 4294967295
0.36000001 0.26999998 0.17999996 4294967295
0.36000001 0.27999997 0.17999996 4294967295
0.36000001 0.28999996 0.17999996 4294967295
0.36000001 0.29999995 0.17999996 4294967295
0.36000001 0.30999994 0.17999996 4294967295
0.36000001 0.31999993 0.17999996 4294967295
0.36000001 0.32999992 0.17999996 4294967295
0.36000001 0.33999991 0.17999996 4294967295
0.36000001 0.3499999 0.17999996 4294967295
0.36000001 0.3599999 0.17999996 4294967295
0.36000001 0.25 0.16999996 4294967295
0.36000001 0.25999999 0.16999996 4294967295
0.36000001 0.26999998 0.16999996 4294967295
0.36000001 0.27999997 0.16999996 4294967295
0.36000001 0.28999996 0.16999996 4294967295
0.36000001 0.29999995 0.16999996 4294967295
0.36000001 0.30999994 0.16999996 4294967295
0.36000001 0.31999993 0.16999996 4294967295
0.36000001 0.32999992 0.16999996 4294967295
0.36000001 0.33999991 0.16999996 4294967295
0.36000001 0.3499999 0.16999996 4294967295
0.36000001 0.3599999 0.16999996 4294967295
0.36000001 0.25 0.15999995 4294967295
0.36000001 0.25999999 0.15999995 4294967295
0.36000001 0.26999998 0.15999995 4294967295
0.36000001 0.27999997 0.15999995 4294967295
0.36000001 0.28999996 0.15999995 4294967295
0.36000001 0.29999995 0.15999995 4294967295
0.36000001 0.30999994 0.15999995 4294967295
0.36000001 0.31999993 0.15999995 4294967295
0.36000001 0.32999992 0.15999995 4294967295
0.36000001 0.33999991 0.15999995 4294967295
0.36000001 0.3499999 0.15999995 4294967295
0.36000001 0.3599999 0.15999995 4294967295
0.36000001 0.25 0.14999995 4294967295
0.36000001 0.25999999 0.14999995 4294967295
0.36000001 0.26999998 0.14999995 4294967295
0.36000001 0.27999997 0.14999995 4294967295
0.36000001 0.28999996 0.14999995 4294967295
0.36000001 0.29999995 0.14999995 4294967295
0.36000001 0.30999994 0.14999995 4294967295
0.36000001 0.31999993 0.14999995 4294967295
0.36000001 0.32999992 0.14999995 4294967295
0.36000001 0.33999991 0.14999995 4294967295
0.36000001 0.3499999 0.14999995 4294967295
0.36000001 0.3599999 0.14999995 4294967295
0.36000001 0.25 0.13999994 4294967295
0.36000001 0.25999999 0.13999994 4294967295
0.36000001 0.26999998 0.13999994 4294967295
0.36000001 0.27999997 0.13999994 4294967295
0.36000001 0.28999996 0.13999994 4294967295
0.36000001 0.29999995 0.13999994 4294967295
0.36000001 0.30999994 0.13999994 4294967295
0.36000001 0.31999993 0.13999994 4294967295
0.36000001 0.32999992 0.13999994 4294967295
0.36000001 0.33999991 0.13999994 4294967295
0.36000001 0.3499999 0.13999994 4294967295
0.36000001 0.3599999 0.13999994 4294967295
0.36000001 0.25 0.12999994 4294967295
0.36000001 0.25999999 0.12999994 4294967295
0.36000001 0.26999998 0.12999994 4294967295
0.36000001 0.27999997 0.12999994 4294967295
0.36000001 0.28999996 0.12999994 4294967295
0.36000001 0.29999995 0.12999994 4294967295
0.36000001 0.30999994 0.12999994 4294967295
0.36000001 0.31999993 0.12999994 4294967295
0.36000001 0.32999992 0.12999994 4294967295
0.36000001 0.33999991 0.12999994 4294967295
0.36000001 0.3499999 0.12999994 4294967295
0.36000001 0.3599999 0.12999994 4294967295
0.36000001 0.25 0.11999994 4294967295
0.36000001 0.25999999 0.11999994 4294967295
0.36000001 0.26999998 0.11999994 4294967295
0.36000001 0.27999997 0.11999994 4294967295
0.36000001 0.28999996 0.11999994 4294967295
0.36000001 0.29999995 0.11999994 4294967295
0.36000001 0.30999994 0.11999994 4294967295
0.36000001 0.31999993 0.11999994 4294967295
0.36000001 0.32999992 0.11999994 4294967295
0.36000001 0.33999991 0.11999994 4294967295
0.36000001 0.3499999 0.11999994 4294967295
0.36000001 0.3599999 0.11999994 4294967295
0.36000001 0.25 0.10999994 4294967295
0.36000001 0.25999999 0.10999994 4294967295
0.36000001 0.26999998 0.10999994 4294967295
0.36000001 0.27999997 0.10999994 4294967295
0.36000001 0.28999996 0.10999994 4294967295
0.36000001 0.29999995 0.10999994 4294967295
0.36000001 0.30999994 0.10999994 4294967295
0.36000001 0.31999993 0.10999994 4294967295
0.36000001 0.32999992 0.10999994 4294967295
0.36000001 0.33999991 0.10999994 4294967295
0.36000001 0.3499999 0.10999994 4294967295
0.36000001 0.3599999 0.10999994 4294967295
0.36000001 0.25 0.099999942 4294967295
0.36000001 0.25999999 0.099999942 4294967295
0.36000001 0.26999998 0.099999942 4294967295
0.36000001 0.27999997 0.099999942 4294967295
0.36000001 0.28999996 0.099999942 4294967295
0.36000001 0.29999995 0.099999942 4294967295
0.36000001 0.30999994 0.099999942 4294967295
0.36000001 0.31999993 0.099999942 4294967295
0.36000001 0.32999992 0.099999942 4294967295
0.36000001 0.33999991 0.099999942 4294967295
0.36000001 0.3499999 0.099999942 4294967295
0.36000001 0.3599999 0.099999942 4294967295
0.36000001 0.25 0.089999944 4294967295
0.36000001 0.25999999 0.089999944 4294967295
0.36000001 0.26999998 0.089999944 4294967295
0.36000001 0.27999997 0.089999944 4294967295
0.36000001 0.28999996 0.089999944 4294967295
0.36000001 0.29999995 0.089999944 4294967295
0.36000001 0.30999994 0.089999944 4294967295
0.36000001 0.31999993 0.089999944 4294967295
0.36000001 0.32999992 0.089999944 4294967295
0.36000001 0.33999991 0.089999944 4294967295
0.36000001 0.3499999 0.089999944 4294967295
0.36000001 0.3599999 0.089999944 4294967295
0.36000001 0.25 0.079999946 4294967295
0.36000001 0.25999999 0.079999946 4294967295
0.36000001 0.26999998 0.079999946 4294967295
0.36000001 0.27999997 0.079999946 4294967295
0.36000001 0.28999996 0.079999946 4294967295
0.36000001 0.29999995 0.079999946 4294967295
0.36000001 0.30999994 0.079999946 4294967295
0.36000001 0.31999993 0.079999946 4294967295
0.36000001 0.32999992 0.079999946 4294967295
0.36000001 0.33999991 0.079999946 4294967295
0.36000001 0.3499999 0.079999946 4294967295
0.36000001 0.3599999 0.079999946 4294967295
0.36000001 0.25 0.069999948 4294967295
0.36000001 0.25999999 0.069999948 4294967295
0.36000001 0.26999998 0.069999948 4294967295
0.36000001 0.27999997 0.069999948 4294967295
0.36000001 0.28999996 0.069999948 4294967295
0.36000001 0.29999995 0.069999948 4294967295
0.36000001 0.30999994 0.069999948 4294967295
0.36000001 0.31999993 0.069999948 4294967295
0.36000001 0.32999992 0.069999948 4294967295
0.36000001 0.33999991 0.069999948 4294967295
0.36000001 0.3499999 0.069999948 4294967295
0.36000001 0.3599999 0.069999948 4294967295
0.36000001 0.25 0.059999947 4294967295
0.36000001 0.25999999 0.059999947 4294967295
0.36000001 0.26999998 0.059999947 4294967295
0.36000001 0.27999997 0.059999947 4294967295
0.36000001 0.28999996 0.059999947 4294967295
0.36000001 0.29999995 0.059999947 4294967295
0.36000001 0.30999994 0.059999947 4294967295
0.36000001 0.31999993 0.059999947 4294967295
0.36000001 0.32999992 0.059999947 4294967295
0.36000001 0.33999991 0.059999947 4294967295
0.36000001 0.3499999 0.059999947 4294967295
0.36000001 0.3599999 0.059999947 4294967295
0.36000001 0.25 0.049999945 4294967295
0.36000001 0.25999999 0.049999945 4294967295
0.36000001 0.26999998 0.049999945 4294967295
0.36000001 0.27999997 0.049999945 4294967295
0.36000001 0.28999996 0.049999945 4294967295
0.36000001 0.29999995 0.049999945 4294967295
0.36000001 0.30999994 0.049999945 4294967295
0.36000001 0.31999993 0.049999945 4294967295
0.36000001 0.32999992 0.049999945 4294967295
0.36000001 0.33999991 0.049999945 4294967295
0.36000001 0.3499999 0.049999945 4294967295
0.36000001 0.3599999 0.049999945 4294967295
0.36000001 0.25 0.039999943 4294967295
0.36000001 0.25999999 0.039999943 4294967295
0.36000001 0.26999998 0.039999943 4294967295
0.36000001 0.27999997 0.039999943 4294967295
0.36000001 0.28999996 0.039999943 4294967295
0.36000001 0.29999995 0.039999943 4294967295
0.36000001 0.30999994 0.039999943 4294967295
0.36000001 0.31999993 0.039999943 4294967295
0.36000001 0.32999992 0.039999943 4294967295
0.36000001 0.33999991 0.039999943 4294967295
0.36000001 0.3499999 0.039999943 4294967295
0.36000001 0.3599999 0.039999943 4294967295
0.36000001 0.25 0.029999943 4294967295
0.36000001 0.25999999 0.029999943 4294967295
0.36000001 0.26999998 0.029999943 4294967295
0.36000001 0.27999997 0.029999943 4294967295
0.36000001 0.28999996 0.029999943 4294967295
0.36000001 0.29999995 0.029999943 4294967295
0.36000001 0.30999994 0.029999943 4294967295
0.36000001 0.31999993 0.029999943 4294967295
0.36000001 0.32999992 0.029999943 4294967295
0.36000001 0.33999991 0.029999943 4294967295
0.36000001 0.3499999 0.029999943 4294967295
0.36000001 0.3599999 0.029999943 4294967295
0.36000001 0.25 0.019999944 4294967295
0.36000001 0.25999999 0.019999944 4294967295
0.36000001 0.26999998 0.019999944 4294967295
0.36000001 0.27999997 0.019999944 4294967295
0.36000001 0.28999996 0.019999944 4294967295
0.36000001 0.29999995 0.019999944 4294967295
0.36000001 0.30999994 0.019999944 4294967295
0.36000001 0.31999993 0.019999944 4294967295
0.36000001 0.32999992 0.019999944 4294967295
0.36000001 0.33999991 0.019999944 4294967295
0.36000001 0.3499999 0.019999944 4294967295
0.36000001 0.3599999 0.019999944 4294967295
0.25 0.36000001 0.25 4294967295
0.25999999 0.36000001 0.25 4294967295
0.26999998 0.36000001 0.25 4294967295
0.27999997 0.36000001 0.25 4294967295
0.28999996 0.36000001 0.25 4294967295
0.29999995 0.36000001 0.25 4294967295
0.30999994 0.36000001 0.25 4294967295
0.31999993 0.36000001 0.25 4294967295
0.32999992 0.36000001 0.25 4294967295
0.33999991 0.36000001 0.25 4294967295
0.3499999 0.36000001 0.25 4294967295
0.3599999 0.36000001 0.25 4294967295
0.25 0.36000001 0.23999999 4294967295
0.25999999 0.36000001 0.23999999 4294967295
0.26999998 0.36000001 0.23999999 4294967295
0.27999997 0.36000001 0.23999999 4294967295
0.28999996 0.36000001 0.23999999 4294967295
0.29999995 0.36000001 0.23999999 4294967295
0.30999994 0.36000001 0.23999999 4294967295
0.31999993 0.36000001 0.23999999 4294967295
0.32999992 0.36000001 0.23999999 4294967295
0.33999991 0.36000001 0.23999999 4294967295
0.3499999 0.36000001 0.23999999 4294967295
0.3599999 0.36000001 0.23999999 4294967295
0.25 0.36000001 0.22999999 4294967295
0.25999999 0.36000001 0.22999999 4294967295
0.26999998 0.36000001 0.22999999 4294967295
0.27999997 0.36000001 0.22999999 4294967295
0.28999996 0.36000001 0.22999999 4294967295
0.29999995 0.36000001 0.22999999 4294967295
0.30999994 0.36000001 0.22999999 4294967295
0.31999993 0.36000001 0.22999999 4294967295
0.32999992 0.36000001 0.22999999 4294967295
0.33999991 0.36000001 0.22999999 4294967295
0.3499999 0.36000001 0.22999999 4294967295
0.3599999 0.36000001 0.22999999 4294967295
0.25 0.36000001 0.21999998 4294967295
0.25999999 0.36000001 0.21999998 4294967295
0.26999998 0.36000001 0.21999998 4294967295
0.27999997 0.36000001 0.21999998 4294967295
0.28999996 0.36000001 0.21999998 4294967295
0.29999995 0.36000001 0.21999998 4294967295
0.30999994 0.36000001 0.21999998 4294967295
0.31999993 0.36000001 0.21999998 4294967295
0.32999992 0.36000001 0.21999998 4294967295
0.33999991 0.36000001 0.21999998 4294967295
0.3499999 0.36000001 0.21999998 4294967295
0.3599999 0.36000001 0.21999998 4294967295
0.25 0.36000001 0.20999998 4294967295
0.25999999 0.36000001 0.20999998 4294967295
0.26999998 0.36000001 0.20999998 4294967295
0.27999997 0.36000001 0.20999998 4294967295
0.28999996 0.36000001 0.20999998 4294967295
0.29999995 0.36000001 0.20999998 4294967295
0.30999994 0.36000001 0.20999998 4294967295
0.31999993 0.36000001 0.20999998 4294967295
0.32999992 0.36000001 0.20999998 4294967295
0.33999991 0.36000001 0.20999998 4294967295
0.3499999 0.36000001 0.20999998 4294967295
0.3599999 0.36000001 0.20999998 4294967295
0.25 0.36000001 0.19999997 4294967295
0.25999999 0.36000001 0.19999997 4294967295
0.26999998 0.36000001 0.19999997 4294967295
0.27999997 0.36000001 0.19999997 4294967295
0.28999996 0.36000001 0.19999997 4294967295
0.29999995 0.36000001 0.19999997 4294967295
0.30999994 0.36000001 0.19999997 4294967295
0.31999993 0.36000001 0.19999997 4294967295
0.32999992 0.36000001 0.19999997 4294967295
0.33999991 0.36000001 0.19999997 4294967295
0.3499999 0.36000001 0.19999997 4294967295
0.3599999 0.36000001 0.19999997 4294967295
0.25 0.36000001 0.18999997 4294967295
0.25999999 0.36000001 0.18999997 4294967295
0.26999998 0.36000001 0.18999997 4294967295
0.27999997 0.36000001 0.18999997 4294967295
0.28999996 0.36000001 0.18999997 4294967295
0.29999995 0.36000001 0.18999997 4294967295
0.30999994 0.36000001 0.18999997 4294967295
0.31999993 0.36000001 0.18999997 4294967295
0.32999992 0.36000001 0.18999997 4294967295
0.33999991 0.36000001 0.18999997 4294967295
0.3499999 0.36000001 0.18999997 4294967295
0.3599999 0.36000001 0.18999997 4294967295
0.25 0.36000001 0.17999996 4294967295
0.25999999 0.36000001 0.17999996 4294967295
0.26999998 0.36000001 0.17999996 4294967295
0.27999997 0.36000001 0.17999996 4294967295
0.28999996 0.36000001 0.17999996 4294967295
0.29999995 0.36000001 0.17999996 4294967295
0.30999994 0.36000001 0.17999996 4294967295
0.31999993 0.36000001 0.17999996 4294967295
0.32999992 0.36000001 0.17999996 4294967295
0.33999991 0.36000001 0.17999996 4294967295
0.3499999 0.36000001 0.17999996 4294967295
0.3599999 0.36000001 0.17999996 4294967295
0.25 0.36000001 0.16999996 4294967295
0.25999999 0.36000001 0.16999996 4294967295
0.26999998 0.36000001 0.16999996 4294967295
0.27999997 0.36000001 0.16999996 4294967295
0.28999996 0.36000001 0.16999996 4294967295
0.29999995 0.36000001 0.16999996 4294967295
0.30999994 0.36000001 0.16999996 4294967295
0.31999993 0.36000001 0.16999996 4294967295
0.32999992 0.36000001 0.16999996 4294967295
0.33999991 0.36000001 0.16999996 4294967295
